# 3D point list with one line of data per point:
#   POINT3D_ID, X, Y, Z, R, G, B, ERROR, TRACK[] as (IMAGE_ID, POINT2D_IDX)
# Number of points: 623, mean track length: 3.65571
1417 -2.65322 2.57852 8.11938 129 123 92 0.862416 1 966 2 2356 4 3071 3 2538 7 672 6 2027
1416 -2.6828 2.52675 8.11465 153 149 122 0.972612 1 963 2 514 4 3070 3 2537 4 4056 7 669 6 2026
1415 -2.64119 2.49994 8.13925 113 107 75 1.18415 1 964 2 515 4 3069 3 799 7 670 6 689
1414 -2.75459 2.51509 8.08719 113 110 78 0.853045 2 512 4 3068 3 795 6 685
1413 -2.86911 2.61809 8.02157 229 219 184 0.679583 2 505 4 3067 3 798 6 715
1412 -2.89082 2.56283 8.02337 205 198 172 1.05167 1 958 4 3066 2 2353 7 660 6 2023
1411 -2.79893 2.50196 8.07365 255 251 220 0.933948 2 511 4 3065 3 794 7 668 6 684
1410 -2.82526 2.4749 8.06789 80 78 55 0.888359 1 962 2 508 4 3064 3 793 7 667 6 683
1409 -2.54019 2.22168 8.23207 113 107 74 0.836424 2 466 4 3050 3 740 7 627 6 635
1408 -2.74498 2.28598 8.13638 112 112 86 0.654309 2 460 4 3046 3 731 7 621
1407 -2.69323 2.21889 8.16652 204 199 180 0.889125 2 456 4 3044 3 737 7 623 6 628
1406 -2.78199 2.34073 8.10918 129 124 103 0.881724 2 462 4 3043 3 732 7 625 6 679
1405 -2.81685 2.20972 8.11775 255 253 222 0.725654 1 903 2 446 4 3038 3 727 7 617 6 620
1404 -2.87509 2.21371 8.09471 247 243 216 0.809598 2 444 4 3037 7 611 6 619
1403 -2.11913 2.11984 8.42251 214 185 117 1.35209 1 908 4 3033 3 2470
1402 -2.19424 2.11083 8.39306 169 161 115 1.65814 1 907 4 3032 6 2000
1401 -2.3556 2.08756 8.33181 171 167 123 1.2332 2 467 4 3031 3 671 7 580 6 638
1399 -2.74039 2.18649 8.15131 254 252 218 0.976426 1 901 2 451 4 3028 3 726 7 619 6 625
1398 -2.74039 2.18649 8.15131 254 252 218 0.976426 1 900 2 450 4 3027 3 725 7 618 6 624
1397 -2.73456 2.16658 8.16095 251 255 216 0.824323 1 898 2 449 4 3026 3 734 7 577 6 614
1396 -2.73456 2.16658 8.16095 251 255 216 0.824323 1 899 2 448 4 3025 3 735 7 578 6 613
1395 -2.75801 2.16686 8.15195 123 123 87 1.01338 2 447 4 3024 3 724 7 574 6 612
1394 -2.71279 2.07597 8.18466 254 250 229 0.857092 2 387 4 3023 3 668 7 575 6 611
1393 -1.64484 1.76686 8.66895 157 158 93 1.76753 2 2305 4 3013 3 2453 6 1969
1392 -2.0828 1.72215 8.49716 189 171 61 0.74141 1 840 2 346 4 3011
1391 -1.68074 1.52846 8.70333 115 125 62 2.29142 1 817 4 2991 2 2288 6 1955
1390 -1.64553 1.525 8.69223 254 254 250 1.52939 1 818 2 349 4 2990
1389 -1.64553 1.525 8.69223 254 254 250 1.52939 1 819 2 350 4 2989
1388 -1.82151 1.64538 8.61741 132 117 60 1.54934 1 813 4 2988 3 2451 7 2308
1387 -1.72934 1.4168 8.69923 138 152 90 1.89349 2 309 4 2986 3 2435 7 522 6 1925
1386 -1.89151 1.58289 8.60635 164 135 65 1.41416 2 2286 4 2985 3 2436 6 1954
1385 -2.08136 1.66304 8.49878 188 167 78 0.976869 1 810 2 345 4 2981
1384 -2.60435 1.56562 8.31808 224 205 146 0.808087 1 805 4 2972 3 2429 2 2281 7 513
1383 -2.34616 1.3861 8.44961 237 241 217 0.506477 1 806 4 2951 7 515
1382 -2.52899 1.29554 8.39592 159 152 110 0.810951 1 763 2 299 4 2948 3 2404 7 466 6 1922
1381 -2.66421 1.43098 8.3161 132 132 123 0.641842 1 802 4 2947 3 2426 6 1923
1380 -2.71101 1.42971 8.29529 171 168 163 0.65939 1 799 2 297 4 2946 7 507 6 1916
1379 -2.73214 1.45427 8.28328 245 240 236 0.457186 1 800 4 2943 3 2424 7 2272 6 1917
1378 -1.77095 1.06199 8.74571 225 225 213 1.27112 2 254 4 2915 3 506 7 474 6 389
1377 -1.77095 1.06199 8.74571 225 225 213 1.27112 2 253 4 2914 3 505 7 473 6 388
1376 -2.1006 0.964175 8.62747 241 248 240 0.989936 1 764 4 2912 2 2234 3 2379 7 2220
1375 -2.54585 1.14874 8.41643 140 131 76 0.661078 1 762 4 2910 2 243
1374 -2.60471 1.06544 8.40452 128 128 120 0.858967 2 242 4 2906 3 2374 7 2248 6 1878
1373 -2.76186 1.23771 8.30451 104 101 96 0.798386 1 760 2 241 4 2904 3 2401 7 460 6 1876
1372 -2.7511 1.16137 8.3284 125 122 117 0.960041 2 2231 4 2903 3 2372 7 2244 6 1873
1371 -1.79738 0.792684 8.78019 161 153 130 0.922498 2 200 4 2855 3 2343 6 1824
1370 -1.66195 0.658193 8.86224 198 225 206 0.988647 2 204 4 2854 3 2307 6 1771
1369 -2.75243 0.897542 8.37097 151 150 148 0.959222 1 725 2 188 4 2846 3 2339 7 2214 6 1812
1368 -2.64347 0.586266 8.47404 253 254 248 1.03808 2 155 4 2788 7 375 3 375 6 41
1367 -2.76404 0.746227 8.38714 254 253 248 1.34375 1 723 2 2190 4 2787 3 2337 7 2185 6 1762
1366 -2.74137 0.662364 8.41496 253 254 248 1.04954 1 719 2 2171 4 2785 3 3161 7 2183 6 2596
1365 -2.74137 0.662364 8.41496 253 254 248 1.04954 1 718 4 2784 2 2170 3 3160 7 2182 6 2595
1364 -2.79124 0.691749 8.39024 143 142 143 0.921957 2 153 4 2782 7 378 6 1760
1363 -2.79143 0.691683 8.38935 143 142 143 0.813613 1 720 2 152 4 2781 3 2301 7 377 6 1759
1362 -2.52673 0.604081 8.39736 125 124 106 0.7508 1 686 4 2724
1361 -1.63914 -0.156694 9.01271 232 203 124 1.12341 2 2129 4 2667 1 647 3 3099 7 3084
1360 -1.77766 -0.349061 8.97739 246 236 141 0.565077 2 54 4 2619 1 574
1359 -2.21871 -0.241236 8.79371 254 251 188 0.60761 1 643 2 2099 4 2618 3 3076
1358 -2.64747 -0.0521932 8.58064 232 232 227 0.698954 2 84 4 2616 3 2186
1357 -2.73244 -0.100548 8.55304 110 110 112 0.688197 1 639 2 80 4 2611 7 2073
1356 -2.732 -0.0999432 8.55208 110 110 112 0.625951 1 638 2 79 4 2610 3 2147 7 2072
1355 -1.89328 -0.58978 8.99066 154 127 106 1.0261 2 2074 4 2569 1 572 7 2024
1354 -2.14321 -0.520162 8.87292 255 255 247 0.943254 2 21 4 2565 7 140
1353 -2.48589 -0.463161 8.72049 166 161 119 0.559301 1 560 2 2072 4 2561 7 3062
1351 1.02518 5.28369 6.0668 130 119 133 1.50149 5 1040 4 1541
1350 1.82869 5.26814 6.12717 12 24 36 1.26421 5 1126 4 1489
1349 1.78748 4.61707 6.40966 17 16 41 1.23408 5 2160 4 1268 2 980
1347 -2.77599 3.63116 7.88754 193 189 171 0.572781 2 635 5 40 4 1241
1346 1.74879 4.15443 6.58868 3 19 35 1.93913 2 2509 4 1083
1345 -2.74439 3.09654 7.99088 222 219 202 0.825056 2 591 4 937 3 879
1344 -2.50952 2.48671 8.18816 239 219 160 1.54203 2 516 4 749 3 804 7 676 6 691
1343 -2.66924 2.24798 8.17071 110 103 74 0.650098 2 463 4 706 3 739 6 630
1342 -2.75773 2.21609 8.14101 95 93 64 0.653891 2 453 4 705 3 729 6 627
1341 -2.75773 2.21609 8.14101 95 93 64 0.653891 2 452 4 704 3 728 6 626
1340 -1.56121 1.95256 8.67591 195 174 102 2.5222 2 404 4 687 3 682 6 565
1339 -2.19085 2.14378 8.3828 133 126 80 1.35713 2 471 4 681 3 752 6 646
1338 -1.66953 1.80194 8.65626 255 255 243 1.94598 2 394 4 639 3 642 6 561
1337 -1.53659 1.71292 8.72365 214 218 171 2.00228 2 400 4 637 3 644 6 547
1336 -2.29445 1.7839 8.40525 239 215 129 0.983318 2 390 4 632 3 637 6 557
1335 -2.36783 1.54653 8.41951 161 158 130 1.87608 2 340 4 607 7 514 6 532
1334 -2.6698 1.52818 8.29917 147 141 115 0.676155 2 298 4 598 3 600 7 508 6 527
1333 -2.85437 1.73209 8.18785 181 166 86 0.474346 2 338 4 594 6 526
1332 -1.63437 1.30006 8.75586 235 236 210 1.75545 2 312 4 584 3 565 6 480
1331 -1.63457 1.30144 8.75834 235 236 210 1.85262 2 311 4 583 1 814 3 564 6 479
1330 -1.6026 1.16886 8.79768 144 154 83 1.48502 1 771 2 310 4 578 3 560 6 1886
1329 -2.51627 1.42103 8.37934 239 235 210 0.900363 2 306 4 567 3 602 7 511 6 467
1328 -2.58409 0.945326 8.43273 117 120 100 1.19578 2 194 4 465 3 2341 7 414 6 1820
1327 -2.65737 0.998656 8.39297 88 87 85 1.01208 2 193 4 461 7 412 6 270
1326 -2.71684 0.762925 8.40711 253 253 245 0.825913 2 184 4 419 7 381
1325 -2.61733 0.277118 8.53549 75 73 78 1.25762 2 119 4 250 3 2228 7 287
1324 -2.62888 -0.0707407 8.58848 134 131 125 0.609201 2 83 4 145 7 232
1323 -2.69384 0.0123802 8.55001 138 136 137 1.06378 2 86 4 142 7 237
1322 -2.34454 -0.321212 8.75281 255 254 227 0.966211 2 50 4 5 3 2121 7 185
1321 -2.59433 -0.387449 8.66275 253 254 246 1.72636 2 49 4 3 3 2118 7 2045
1320 -2.59252 -0.388129 8.66501 253 254 246 0.724906 2 48 4 2 3 2117
1317 -1.94992 4.12696 8.13411 225 181 140 1.95137 2 726 4 3394 3 957
1316 -2.6518 4.20119 7.83177 124 110 71 2.03405 1 1316 5 1813 4 4184 3 983 7 838 6 817
1315 -3.17508 4.09449 7.66541 176 168 155 0.980014 1 4832 5 3617
1314 2.24324 4.02791 5.90184 2 2 0 0.50179 5 3461 4 5026 2 4124
1313 2.24341 3.89411 5.97987 2 1 0 1.00207 2 4123 5 3338
1312 -3.49189 4.76107 7.40711 247 237 216 0.534567 1 4223 3 3768 7 3775 6 3163
1311 -3.19289 4.46884 7.57626 229 221 214 1.38926 1 4208 5 3283 3 3760
1310 -3.38131 4.1814 7.55046 252 242 230 0.781553 1 4197 5 3278 3 3751
1309 2.21391 3.77412 6.06548 179 149 125 2.14423 5 3112 4 4821 2 3788
1308 -3.36704 4.83296 7.4463 252 235 215 0.961927 1 3777 5 3038 3 3370 7 3328 6 2801
1307 -3.18492 4.69893 7.5364 159 153 127 1.69438 1 4217 5 3033 3 3762
1306 -3.18492 4.69893 7.5364 159 153 127 1.69438 1 4216 5 3032 3 3761
1305 2.2363 4.00707 5.95016 5 4 1 1.1618 5 2774 4 4527 2 3345
1304 -3.53881 4.95951 7.35699 253 242 222 0.691926 1 2887 3 2662 7 923
1303 -3.69231 4.85797 7.31233 240 222 208 0.225661 2 3374 3 2655 7 2485 6 2139
1302 -3.71416 5.04706 7.27288 251 233 213 1.43081 2 1030 5 1892 3 1079 7 913
1301 -3.71416 5.04706 7.27288 251 233 213 1.43081 2 1029 5 1891 3 1078 7 912
1300 -3.65932 4.73255 7.34803 239 182 139 1.30355 2 2562 5 1841 7 915
1299 -3.24318 4.48054 7.55159 108 103 97 1.23406 1 1403 5 1822 3 997 6 829
1298 -3.17212 3.84813 7.6938 254 250 238 1.19744 1 1246 5 1777 3 946
1297 -3.1159 3.53753 7.7622 116 112 109 1.59945 1 1161 5 1735 3 922 7 766 6 768
1296 -3.00038 3.45834 7.82463 195 178 134 0.525554 1 1164 3 901 7 765
1295 -2.76101 4.28048 7.8234 226 212 180 1.96323 1 4879 2 4469 5 3644
1294 -2.44317 6.43539 7.51448 211 213 192 1.17021 1 4888 5 3626 3 4273 7 4294
1293 -2.4708 4.52421 7.87528 254 228 155 2.69869 2 4426 4 5274 3 4264 7 4234 6 3581
1292 -2.4708 4.52421 7.87528 254 228 155 2.69869 2 4425 4 5273 3 4263 7 4233 6 3580
1291 -2.69139 4.45259 7.78424 117 103 56 2.07384 1 4760 2 4372 5 3583 4 5220 3 4207 7 4124
1290 -2.64148 4.15052 7.84547 119 105 60 1.38697 1 4756 4 5272 3 4205 7 4229
1288 -2.78086 3.94339 7.8422 255 250 237 1.63699 1 4754 2 4368 3 4202 7 4119
1287 -2.61648 3.65523 7.97575 65 51 11 1.32555 2 4417 1 4831 4 5269 3 4260 7 4226
1286 -2.90916 7.80209 7.13776 47 48 30 0.756615 2 4451 3 4152 7 4154
1284 -2.25959 4.64565 7.92637 96 83 31 1.43816 2 4265 5 3526 4 5163 3 4120 7 3982
1283 -2.95558 4.16676 7.72254 117 114 108 1.43267 1 4642 5 3525 3 4119 7 4123
1282 -2.95407 4.16573 7.71721 117 114 108 1.76223 1 4641 5 3524 3 4118 7 4122 6 3357
1281 -3.3418 4.29934 7.53388 59 57 44 1.47818 2 4371 6 3478 7 4120
1280 -3.36338 4.30214 7.58235 59 57 44 0.418929 2 4370 5 3522
1279 -3.20252 3.87664 7.66928 251 240 226 2.30766 1 4640 2 4367 7 4118 5 3520
1278 -2.77948 3.69015 7.88898 159 153 141 0.0812128 2 4259 7 3975
1277 -3.61302 5.36551 7.28282 192 145 99 1.80297 2 4274 5 3451 3 4016 7 3788 6 2821
1276 -2.1594 4.73795 7.95201 210 181 100 0.919144 1 4494 2 4139 3 3767 7 3772
1275 -3.05556 4.80537 7.58064 130 124 105 1.10398 1 4652 5 3441 3 4010 7 3985 6 3366
1274 -2.69917 4.13776 7.83271 73 60 29 1.19397 1 4473 2 4121 5 3431 4 5046 3 4000 7 3758
1273 -2.90763 4.02019 7.76246 254 246 235 1.18034 1 4472 2 4119 5 3430 3 3999 7 3751 6 3155
1272 -2.96305 3.80373 7.76925 225 204 149 1.3221 1 4464 2 4113 6 3355
1271 -3.00927 3.65724 7.7885 247 218 154 1.10299 1 4463 2 4111 5 3428 3 3992
1270 -2.65488 6.92909 7.381 69 88 56 1.10184 2 4191 3 3826 7 3833 6 3202
1269 -3.01643 6.51217 7.28442 179 193 194 1.33334 1 4529 5 3341 4 5187 3 3813 7 3824
1268 -3.01752 6.51448 7.28465 179 193 194 0.822152 1 4528 5 3340 7 3823
1267 -2.01733 6.17786 7.74183 131 91 32 0.740588 2 4177 3 3806 6 2843
1266 -3.16026 6.39171 7.26405 238 236 226 0.278264 2 4179 5 3328 3 3810 7 3820
1265 -2.035 5.29327 7.96121 163 121 56 1.31302 2 4153 4 5079
1264 -2.4516 4.96151 7.80041 124 114 54 1.43955 1 4229 2 4144 4 5073 3 3777 7 3781
1263 -2.58507 4.88362 7.75047 93 93 39 2.07513 2 4137 5 3296 4 5066 3 3775 7 3780
1261 -2.80263 4.6661 7.70376 165 157 136 1.50606 2 3861 4 4920 3 3358 7 3314
1260 -3.14675 4.53254 7.5812 101 98 91 1.0299 2 4128 5 3287 3 3763 7 3769
1259 -2.69639 4.35195 7.78817 109 93 57 1.26217 1 4211 5 3284 7 3759
1258 -2.67496 4.01557 7.863 149 134 91 1.29908 1 4200 2 3796 5 3275 3 3746 7 3283
1257 -2.75681 4.04366 7.82008 241 229 213 1.21546 1 4199 2 3797 5 3274 4 5045 2 4120 3 3745 7 3752 6 3156
1256 -2.75609 3.7255 7.8779 252 245 232 1.49463 1 4189 2 4114 5 3273 4 5035 3 3994 7 3742 6 3151
1255 -2.90412 3.88456 7.79185 129 129 119 1.00922 1 4187 5 3272 3 3743 7 3749
1254 -2.90412 3.88456 7.79185 129 129 119 1.00922 1 4188 5 3271 3 3744 7 3750
1253 -2.49873 3.67154 7.99663 144 124 63 1.51642 2 4115 5 3268 4 5036 3 3995 7 3743
1252 -2.75702 3.54311 7.91371 245 238 225 0.944605 1 4176 2 4105 5 3267 4 5032 3 3993 7 3741
1251 -2.83762 3.55043 7.87627 128 124 121 1.05302 1 4174 2 3776 5 3266 4 4871 3 3741 7 3740
1250 -2.94222 3.60914 7.81887 108 105 100 1.53689 1 4173 2 3775 5 3265 3 3739 7 3266 6 2769
1249 -2.51107 7.97428 7.2376 208 170 59 0.647204 1 4361 5 3172 3 3491 7 3449
1248 -2.51107 7.97428 7.2376 208 170 59 0.647204 1 4362 5 3171 3 3490 7 3448
1247 -2.52734 7.70124 7.26377 122 98 50 0.956055 2 4002 5 3159 3 3474 7 3447
1246 -3.36082 7.79377 6.95336 237 231 216 1.78092 1 4566 5 3158 3 3472 7 3446
1245 -2.79533 6.7445 7.33805 39 57 31 1.50807 1 4535 5 3140 3 3822 7 3408
1244 -1.83786 6.47717 7.70816 127 83 21 1.75233 2 3961 5 3137 4 4971
1243 -2.00547 6.17975 7.74716 117 76 20 0.978094 2 3952 4 4962 3 3413 7 3389
1242 0.699088 4.45157 6.40602 9 23 54 1.08917 5 3107 4 4136
1241 -2.2528 6.01735 7.6705 86 75 26 0.517729 2 3941 7 3388 6 2842
1240 -2.20289 5.8697 7.72285 89 102 53 0.691062 1 4280 4 4957 3 3408 7 3372
1239 -2.92832 6.02816 7.40492 91 113 92 1.43504 1 4282 5 3102 4 5104 7 3386 6 2839
1238 -3.26203 6.13156 7.26795 38 97 140 1.16879 1 4295 5 3099 3 3412 6 2837
1236 -2.52048 5.25177 7.70754 92 81 27 1.60706 1 3825 5 3068 6 2191
1235 -2.49999 4.989 7.75853 86 86 36 1.74512 2 3878 5 3060 4 4931 3 3375 7 3332 6 2812
1234 -1.92005 4.87729 8.02947 215 163 116 1.08891 1 3767 2 3386 3 3376 7 3334
1233 -2.39553 4.74806 7.84855 255 230 123 2.56074 2 3866 5 3047 4 4923 7 3318
1232 -2.55941 4.78599 7.7765 252 238 166 1.58114 2 3863 5 3044 4 4929 3 3374 7 3317
1231 -2.95869 4.81172 7.60597 201 178 128 0.951394 1 3786 5 3042 4 4927
1230 -2.60204 4.63324 7.78288 140 121 65 1.58626 1 3763 2 3841 5 3034 4 4921 3 3359 7 3315 6 2789
1229 -3.07227 4.56799 7.60933 159 153 134 0.597442 2 3840 5 3031 7 3312
1228 -2.94559 4.35346 7.69767 100 97 88 1.75316 1 3739 2 3817 5 3026 4 4915 3 3351 7 3291 6 2108
1227 -3.10506 4.34406 7.62821 246 237 225 1.306 1 3738 2 3814 5 3025 3 3350 7 3289 6 2128
1226 -2.01161 4.24724 8.10471 157 134 54 1.21085 1 4202 2 3821 3 3354 7 3298
1225 -2.68139 4.27523 7.81847 94 81 42 1.53109 2 3820 5 3022 4 4913 7 3296
1224 -2.68139 4.27523 7.81847 94 81 42 1.53109 2 3819 5 3021 4 4912 7 3297
1223 -2.74306 4.27964 7.7869 222 204 160 1.44756 1 4210 2 3818 5 3020 4 4911 3 3754 7 3293 6 2780
1222 -2.83907 4.13118 7.77517 186 183 172 1.56629 2 3334 5 3019 4 4615 7 2455 6 2110
1221 -2.83907 4.13118 7.77517 186 183 172 1.56629 2 3333 5 3018 4 4614 7 2456 6 2109
1220 -3.29192 4.23696 7.57194 86 83 77 1.05634 1 3735 2 3811 5 3016 3 3345 7 3286 6 2102
1219 -3.24483 4.16123 7.61002 200 200 188 1.43581 1 3714 2 3349 3 3344 5 3015
1218 -3.43565 4.25842 7.50934 85 85 78 0.480738 1 3734 2 3348 7 2452 6 2101
1217 -3.42048 4.20348 7.52423 251 244 238 0.428413 1 3733 2 3347 3 2630 7 2451 6 2100
1216 -2.51512 3.99529 7.93044 245 215 132 1.49282 1 3720 5 3012 2 3335 4 4604 3 3340 7 2446
1215 -2.66046 3.91297 7.89403 126 109 63 1.64607 1 3698 5 3011 7 3282
1214 -2.86807 4.05197 7.77561 233 224 215 0.964653 1 3717 2 3332 5 3010 3 3338 7 3281
1213 -2.95069 4.0989 7.73109 90 86 83 1.4389 1 3716 2 3331 5 3009 3 3348 7 2454 6 2107
1212 -2.97617 3.99793 7.74225 208 191 148 0.878478 1 3715 2 3330 5 3006 3 3335
1211 -3.24831 4.04934 7.63017 197 192 180 1.19637 1 3711 2 3326 7 2453 5 3004
1210 -2.90024 3.80959 7.80196 252 245 235 0.952463 1 3697 2 3313 5 2999 3 3337 7 3280 6 2771
1209 -2.86738 3.7573 7.83102 247 239 229 1.26853 2 3311 5 2997 4 4580 3 3328 7 2442 3 2608 6 2092
1208 -3.0524 3.87422 7.73085 103 99 96 1.09792 1 3696 2 3310 5 2996 3 3333 7 3279 6 2770
1207 -3.10312 3.86201 7.72433 255 251 242 0.644793 1 3695 2 3309 5 2995
1206 -3.16086 3.92966 7.67857 250 243 232 0.808183 1 3712 2 3328 3 3332 6 2086
1205 -2.18139 3.612 8.13322 255 223 172 2.27297 1 3670 2 3303 5 2993 4 4567 3 3331 7 3269
1204 -2.2221 3.56379 8.12369 150 118 59 2.0592 1 3669 2 3302 5 2992 4 4566 3 3330 7 3267
1203 -2.3036 3.60002 8.08261 116 98 40 2.0654 1 3668 2 3779 5 2990 4 4872 3 3742 7 3268
1202 -3.07493 3.51109 7.7744 166 161 139 1.3199 1 3665 2 3774 7 3265 6 2762
1201 -2.95934 8.33484 7.03613 60 73 53 1.625 2 4018 3 3487 7 3457 5 2863
1200 -3.25316 8.32834 6.9002 68 83 64 1.17491 1 4381 5 2862 3 2946 7 2784
1199 -3.28778 7.79737 6.96087 141 158 166 0.785413 2 3565 5 2817 3 2872 7 2741
1198 -2.95702 6.88167 7.24999 83 101 72 0.906993 2 3973 5 2780 3 3446 7 2679
1197 -2.97902 6.79048 7.2521 153 176 162 0.772478 1 3934 5 2779 3 2807
1196 1.80727 4.42493 6.49594 197 182 195 1.16453 5 2746 4 4128 3 2854 2 3367 7 2692
1194 -2.60549 6.29027 7.49191 219 219 203 1.20562 1 3894 4 4975 3 2783 7 2601 6 1008
1192 1.66254 4.18755 6.59248 195 181 198 2.35586 5 2723 4 3225 3 2819 2 2507
1191 1.59161 4.19053 6.58839 200 187 204 2.19161 5 2722 4 3223 3 2816 7 1229
1190 1.44166 4.21897 6.56563 175 158 177 1.65428 5 2720 4 3224 3 2813
1188 -2.85536 5.90707 7.45151 66 82 50 0.934809 1 3871 5 2712 3 2758
1186 1.33619 4.20305 6.56814 204 189 208 2.05203 5 2699 4 3214 3 2796
1184 -2.33623 5.28481 7.78816 214 166 80 1.14836 1 2962 3 2710
1183 -2.50543 5.39043 7.70467 197 159 50 0.781109 2 3433 4 4681 3 2708 7 2548
1182 -2.50924 5.16536 7.72801 104 99 47 2.27878 1 2956 5 2668 4 4670 7 962
1181 -3.44443 5.20153 7.35368 223 193 159 0.923244 2 3425 5 2661 3 2696 7 2534 6 866
1180 -1.88917 5.12788 7.94537 168 135 67 0.0588684 5 2647 4 4659
1179 -1.95327 5.13003 7.97635 224 183 95 1.67448 1 2912 4 4252 3 2690 7 2520
1178 -2.83459 5.04943 7.62281 94 90 44 1.18237 2 3403 5 2636 4 4663 3 2677 7 2507 6 2162
1177 -3.35506 4.96969 7.42526 255 241 223 0.74529 2 3396 5 2625 3 2666 7 2494 6 869
1176 -1.65693 4.85257 8.12581 243 186 156 2.37693 1 2866 2 2589 4 4219 6 2176
1175 -2.07605 4.73344 7.98961 247 203 103 1.40493 1 3766 2 3385 4 4639 3 2653 7 2477
1174 -2.63363 4.78227 7.74963 111 99 49 1.6819 1 2861 5 2616 4 4646 3 2682 7 2475
1173 -2.9511 4.88539 7.6149 223 200 151 1.32508 2 3382 5 2613 7 2502
1172 -3.12364 4.90415 7.53002 140 128 102 0.523989 1 2895 5 2610 7 2501 3 2671
1171 -2.02734 4.58194 8.04298 207 173 110 1.51203 1 3741 2 3362 4 4634 7 2478
1170 -2.4339 4.66897 7.8482 174 148 77 1.63466 2 3383 4 4638 3 2652 7 2476 6 844
1169 -2.87958 4.53456 7.69084 184 179 159 0.823873 1 2857 2 2536 5 2593 4 4636 3 2649 7 866 6 2129
1168 -2.07424 4.33196 8.05472 245 197 148 0.56364 1 2829 2 3352 7 2460
1167 -2.75699 4.38295 7.76012 133 117 84 1.14263 1 2828 5 2590 3 2638 7 2459 6 2130
1166 -3.0315 4.45414 7.64427 114 111 102 0.885703 1 2826 2 3361 5 2589 1 3740 3 2647 7 2473
1165 -3.32516 4.48783 7.51727 252 245 230 0.862304 1 2852 2 3359 5 2587 3 2644 7 2470 6 2125
1164 -3.26257 4.42051 7.5533 234 224 212 1.43303 1 3737 2 3360 5 2584 3 3356 7 2471 6 2124
1163 -2.79338 4.28793 7.76501 114 110 105 1.33267 1 2827 2 2493 5 2580 4 4183 3 2637 6 2116
1162 -2.74752 4.14029 7.80748 98 95 86 1.07519 1 2791 2 2466 5 2578 4 4617 3 2636 7 2457 6 2113
1161 -3.02589 4.15026 7.69264 84 81 79 1.13566 1 2787 2 2459 5 2577 3 2633 7 830 6 806
1160 -2.82352 4.03916 7.8015 144 144 134 1.49582 1 2789 2 2464 5 2573 4 4166 3 2623 7 807 6 812
1159 -2.87346 3.94607 7.79892 254 250 241 1.4295 2 2461 5 2572 4 4148 7 2441 4 4602
1158 -2.90688 3.93669 7.77992 133 134 127 1.28425 1 2756 2 2460 5 2571 4 4147 3 2622 7 803 6 786
1157 -3.00611 3.93824 7.73412 248 237 215 1.05556 1 2785 2 2454 5 2570 7 2439 6 2088
1156 -3.077 4.10134 7.68132 229 221 210 0.859215 1 2786 2 2458 5 2569 3 2632 6 2105
1155 -3.11178 3.9963 7.68951 236 230 214 0.384927 1 2782 2 2453 5 2567 3 2620 7 802
1154 -2.70086 3.87079 7.87274 221 202 160 1.35285 1 2758 2 2430 5 2564 3 2624 7 2444 6 2094
1153 -2.92599 3.86792 7.78823 118 115 110 1.42978 1 2754 2 3314 5 2562 4 4600 3 2621 7 2438 6 2089
1152 -3.09258 3.84959 7.71286 254 252 239 1.26661 1 2753 2 2425 5 2559 3 2618 7 2437 6 2087
1151 -3.13857 3.83535 7.70942 214 209 189 2.1984 2 2424 5 2558 7 799
1150 -3.06774 3.8159 7.74296 94 90 88 0.851534 1 2751 5 2557 7 2435
1149 -3.06774 3.8159 7.74296 94 90 88 0.851534 1 2752 5 2556 7 2436
1148 -2.22537 3.62419 8.10694 154 114 48 2.1095 1 2726 2 2414 5 2553 4 4123 3 2615
1147 -2.76587 3.66148 7.89002 252 245 234 1.34561 1 2757 2 2428 5 2551 4 4132 3 2610 7 770
1146 -2.90674 3.61343 7.83959 170 168 156 0.9227 2 2409 5 2549 3 2606
1145 -3.07338 3.60883 7.76445 181 173 143 0.938308 1 3666 2 3299 3 3327 7 2428 6 2768
1144 -2.90414 3.45553 7.86826 253 249 237 0.82156 1 2723 2 2408 5 2546 3 2597 7 2427
1143 -3.02194 3.48272 7.80823 92 91 85 1.29811 1 2724 2 3298 3 2592 7 2426 6 2078 5 2545
1142 -2.45669 8.45563 7.19224 106 55 10 1.05217 2 3073 5 2371 3 1515 1 3385
1141 -2.88834 8.34632 7.05768 30 39 18 1.36069 2 3604 5 2366 3 2913 7 1475
1140 -3.20184 8.51049 6.90074 43 61 39 1.73093 2 3619 3 1507 7 1474 5 2362
1139 -2.62168 7.98485 7.19292 118 68 31 1.16605 1 4004 5 2338 7 1411
1137 -2.45359 7.90254 7.28718 129 68 23 1.08167 1 3995 5 2300
1136 -2.51334 7.76993 7.27143 127 117 62 1.24841 1 3980 2 2988 5 2297 3 2877 7 1412
1135 -2.9729 7.8174 7.09122 77 87 34 0.83281 2 3007 5 2294 3 1399
1134 -2.95914 7.62221 7.12602 80 95 52 0.660439 1 3979 5 2292 3 1395
1133 -3.12389 7.62274 7.06704 133 166 181 0.769372 2 2985 5 2288 3 1396 7 1403
1132 0.906886 5.30258 6.05376 207 193 206 1.68774 4 3474 3 1472 1 2835 7 1427 5 2261
1131 -2.87569 7.26678 7.22852 68 82 56 0.626285 2 2958 5 2217 7 1363 3 2844
1130 -2.96107 6.9962 7.22739 90 106 79 0.567464 2 2914 5 2213 3 1335 7 1289
1129 -3.29765 6.82037 7.12774 134 161 174 0.188471 2 3530 5 2178 7 1281
1127 0.644968 4.78519 6.25467 10 8 3 0.27242 5 2155 4 4173
1126 -2.90225 6.57719 7.31448 74 90 63 1.3072 2 2884 5 2148 4 4749 3 1228 7 1195
1125 -3.01294 6.62927 7.27026 31 43 27 0.826176 1 3122 5 2146 3 1266 7 1196
1124 -2.9363 6.50711 7.32241 84 104 79 1.72322 1 3095 5 2145 4 4748 3 1222 7 1193
1123 -3.39287 6.61724 7.12874 243 239 230 0.271723 2 2877 5 2137 7 1187
1122 1.7768 4.39958 6.50647 55 47 70 1.2449 5 2113 4 3268 3 1355 2 2545 7 1297
1121 1.79636 4.37134 6.51599 88 92 154 1.80739 5 2112 4 1185 2 898
1119 -1.89565 6.26238 7.77284 159 111 27 1.26134 1 3081 4 4355 7 1152
1118 -2.68324 6.38349 7.43274 194 198 173 1.599 2 2844 5 2090 4 4739 3 2780
1117 -2.68569 6.38567 7.43994 194 198 173 1.67399 2 2843 5 2089 4 4738 3 2779 7 2650 2 3506 6 2238
1116 -2.71483 6.36289 7.42276 75 99 70 1.24597 1 3096 5 2087 4 4396 3 1226
1115 -2.77466 6.29605 7.42113 77 86 39 1.21162 1 3072 5 2086 3 1225
1114 -2.97644 6.28842 7.34549 63 84 56 1.75262 1 3069 5 2083 4 4734 3 2773 7 1133 6 1001
1113 -3.00761 6.16369 7.34834 172 190 196 1.32385 1 3066 5 2081 4 4723 3 1181
1112 -3.2228 6.23012 7.25019 49 109 145 0.564873 2 2802 5 2079 3 1213
1111 1.81775 4.18373 6.60182 63 66 87 2.07513 5 2062 4 1084 2 824
1109 -2.05332 5.94926 7.7578 169 124 33 1.14548 2 2785 3 1201 7 1098 6 968
1108 -2.5953 5.96767 7.54113 63 89 53 0.238154 1 1773 3 1186 7 1135
1107 -3.23925 6.02983 7.29104 201 210 209 0.762473 2 2769 5 2035 3 2749 7 2594 6 948
1106 1.77825 4.12762 6.62498 213 195 220 1.39945 4 981 3 1249 2 823 7 1236
1104 -2.90094 5.80707 7.44918 52 76 49 1.23715 2 2739 5 1999 4 4324 7 1086
1103 -3.11898 5.88582 7.3555 184 193 192 0.556005 1 3042 5 1995 3 1175 7 1082
1102 -2.95658 5.75345 7.44094 64 87 61 0.765698 2 2737 5 1994 3 1150 7 1083
1101 -3.17007 5.71969 7.36125 172 192 183 0.183658 1 3011 5 1987 7 1076
1100 -3.43028 5.79692 7.2503 54 69 49 0.624415 2 2727 5 1984 3 2747 7 1073 6 941
1099 -2.79787 5.41362 7.58172 72 68 22 1.35068 2 2704 5 1960 3 1123 7 1026
1098 -2.21345 5.28937 7.84134 212 168 61 1.08587 2 2674 4 4270 3 1131 7 1033
1097 -2.73941 5.29733 7.60781 77 75 31 0.876584 1 1600 5 1946 4 4289
1096 -2.83794 5.3462 7.57763 77 75 26 1.29038 2 2665 5 1943 4 4680
1095 -2.8972 5.33741 7.54521 97 94 51 1.04104 2 2664 5 1941 3 1120
1094 -2.95522 5.25999 7.53946 86 85 38 0.751239 2 2661 5 1938 3 1110 7 1015
1093 -3.13873 5.31658 7.45805 78 76 37 0.330183 1 2980 5 1936 3 1111
1092 -3.36352 5.29271 7.37556 54 55 15 1.04137 1 1635 2 2658 5 1931 3 1089 7 1007 6 915
1091 -3.3503 5.21404 7.39143 195 163 124 0.604417 2 2656 5 1930 7 1005
1090 -1.64653 4.91366 8.07572 229 170 135 0.425988 5 1924 4 4220
1089 -2.32259 4.95436 7.8453 157 130 36 0.996487 1 1510 3 1068
1088 -2.8042 4.96347 7.64765 70 69 23 1.27081 2 2624 5 1915 3 1055 7 949 6 892
1087 -2.88598 5.04116 7.60067 84 82 41 0.935392 1 1498 5 1910 3 1049
1086 -2.97619 4.98669 7.57864 90 83 42 0.773963 2 2616 5 1903 4 4244 3 1041 7 937
1085 -2.97619 4.98669 7.57864 90 83 42 0.773963 2 2617 5 1902 4 4245 3 1040 7 936
1084 -3.56535 5.13846 7.31575 225 197 171 0.641534 2 2652 5 1897 3 1084 7 1001 6 863
1083 -1.61941 4.85507 8.19575 0 0 0 0.00595094 1 1435 2 970
1082 -1.97785 4.81003 7.97087 157 102 46 0.0590732 5 1887 4 4218
1081 -2.97 4.75304 7.61243 234 208 159 1.33897 1 1416 5 1880 3 1037 7 870 6 876
1080 -1.81606 4.67826 8.1238 195 154 82 2.14751 1 1432 2 2542 4 4207
1079 -1.8842 4.53813 8.10255 143 111 50 1.53613 1 1378 2 884 4 3466 3 1024 7 883
1078 -2.17989 4.60848 7.93392 117 108 53 2.00741 2 2538 5 1858 4 4205
1077 -2.63365 4.64156 7.76283 123 103 50 1.4653 1 1426 5 1855 3 1016 7 874 6 842
1076 -2.67803 4.58037 7.76307 96 86 36 1.54912 1 1420 2 2537 5 1853 4 4215 3 1014 7 873 6 840
1075 -2.93926 4.53292 7.66505 252 235 197 0.480848 1 1410 2 874 5 1851 4 4214 3 1005
1074 -3.08058 4.61778 7.59449 124 121 114 1.03296 2 2533 5 1849 3 1007 7 868 6 836
1073 -3.27085 4.61951 7.51958 94 91 83 0.700769 2 2528 5 1846 3 999 7 862
1072 -3.28647 4.54534 7.52644 161 157 146 0.815757 2 2527 5 1845 3 995 7 857
1071 -3.34337 4.52948 7.49877 116 109 102 1.08421 2 2526 5 1844 3 993 7 856 6 826
1070 -3.34337 4.52948 7.49877 116 109 102 1.08421 2 2525 5 1843 3 992 7 855 6 825
1069 -1.90076 4.31061 8.13578 151 129 75 1.57323 1 1377 2 806 4 3439 3 988 7 842
1068 -2.99035 4.46423 7.65831 194 176 139 0.642652 1 1368 2 872 5 1833 3 1003 7 864 4 4203
1067 -2.86682 4.31526 7.72649 183 180 164 0.843533 1 1373 2 796 5 1832 4 3435
1066 -2.86682 4.31526 7.72649 183 180 164 0.843533 1 1374 2 795 5 1831 4 3434
1065 -2.92227 4.31522 7.71016 182 180 165 0.748989 1 1366 2 794 5 1830 4 4182 3 979 7 833 6 809
1064 -2.97004 4.38577 7.67986 248 225 173 0.895621 1 1367 5 1829 4 4202 3 975 7 834
1063 -3.11658 4.39311 7.61283 113 108 102 0.998903 1 1361 5 1825 3 971 6 834
1062 -3.0648 4.32668 7.6436 233 227 213 1.2591 1 1365 5 1824 3 972 7 832 6 807
1061 -3.11549 4.36429 7.6242 249 239 225 0.612252 1 1360 2 785 5 1823 3 970
1060 -3.24925 4.36354 7.5753 64 64 55 0.780839 1 1359 2 780 5 1821
1058 -2.62573 4.2475 7.82611 188 172 131 1.34445 2 799 5 1814 4 4185
1056 -2.62721 4.11661 7.8595 191 174 131 1.46052 1 1317 2 723 5 1811 4 4168 3 980 7 836 6 813
1055 -2.80555 4.15652 7.7844 97 94 89 1.50353 1 2790 2 2465 5 1810 4 4167 3 2635 7 835 7 2458 4 4616 6 815
1054 -3.10893 4.15252 7.66268 255 250 238 0.569572 1 1311 2 2457 5 1809 3 969
1053 -3.21382 4.13013 7.62442 252 246 233 0.99592 1 1310 2 708 5 1807 3 967
1052 -3.31449 4.27837 7.56198 161 160 142 1.41631 1 2822 2 2490 5 1803 3 968 3 2631
1051 -2.64605 4.02169 7.8765 126 113 73 1.25384 2 722 5 1796 4 3389 3 956 7 810
1050 -2.83476 4.00021 7.78573 254 249 241 1.70408 2 718 5 1794 4 3386 3 954 7 805 6 811
1049 -2.84961 3.97702 7.8023 155 150 144 0.810882 2 716 5 1793 4 3337
1048 -3.02287 3.96892 7.72363 232 228 225 0.780603 1 1312 2 712 5 1792 3 953
1047 -3.13192 3.96839 7.68196 204 197 179 1.22654 1 1303 2 709 5 1791 3 949 6 800
1046 -3.16511 3.95515 7.68501 248 235 220 1.19394 1 1302 2 2452 7 800 5 1790
1045 -3.23972 4.10859 7.61917 255 249 239 0.939399 1 1307 2 705 5 1789 3 965 7 825
1044 -2.79212 3.76313 7.85804 254 250 244 0.986684 1 1250 2 662 5 1779 4 4133 3 933 3 2611 5 2563 7 804
1043 -2.9691 3.79172 7.78385 232 206 149 0.387439 2 2426 5 1778 7 801
1042 -3.24214 3.84646 7.6572 251 241 238 1.26014 1 1245 2 2421 3 945 5 1774 7 798 6 782
1041 -3.22621 3.811 7.67107 240 238 228 0.42578 1 1244 2 653 3 944
1040 -3.19707 3.74249 7.69457 244 239 232 1.3542 1 1243 2 656 3 921 7 796 6 781 5 1772
1039 -2.26179 3.56929 8.11232 247 234 215 1.88465 2 642 5 1766 3 936 7 773
1038 -2.26224 3.56636 8.10767 247 234 215 2.21479 2 641 5 1765 4 3258 3 935 7 772
1037 -2.3297 3.6378 8.07039 255 231 163 1.72891 1 1181 2 639 5 1763 4 4122 3 937 7 775
1036 -2.79365 3.68881 7.87111 190 187 170 0.667266 1 1249 2 661 5 1761 4 3295 3 932
1035 -2.81638 3.64197 7.86807 254 251 242 0.0673146 1 1174 5 1759
1034 -2.68874 3.60252 7.93131 134 123 76 0.975496 2 636 5 1758 4 3255
1033 -2.72552 3.57177 7.92041 158 142 93 1.19811 1 1176 5 1756 4 3254 3 928
1032 -2.79468 3.57804 7.8895 253 249 237 0.879726 1 1175 2 631 5 1754 4 3253 3 929
1031 -2.82682 3.59774 7.8682 90 87 82 1.18363 1 1172 2 2410 5 1753 4 4121 1 2725 3 2607 7 768 6 787
1030 -3.09614 3.68894 7.74772 160 159 140 1.28069 1 1247 2 657 3 925 5 1752
1029 -2.19627 3.49532 8.13073 213 169 88 1.90325 1 1180 5 1748 6 775
1028 -2.19422 3.45156 8.1545 211 169 83 1.69184 1 1179 5 1747 3 914 7 774
1027 -2.67538 3.42247 7.96477 104 87 36 1.27928 2 632 5 1743 4 3197 3 911
1026 -3.09593 3.55912 7.76882 166 163 143 0.547245 1 1166 2 627 3 923
1025 -3.09728 3.48408 7.78661 146 144 130 1.29204 1 1159 2 626 3 900 5 1734
1024 -3.0456 8.39189 6.96165 36 46 25 1.01543 1 3379 5 1282 3 1508
1023 -2.94566 8.15632 7.04825 31 53 31 1.17193 2 3036 5 1191 3 1452
1022 -3.28868 7.97069 6.94673 122 152 167 1.12464 2 3030 5 1174 3 1442
1021 0.93381 5.47384 5.98218 163 150 160 1.49273 5 1115 4 3505
1020 0.93381 5.47384 5.98218 163 150 160 1.49273 5 1114 4 3504
1019 0.819101 4.96264 6.19607 187 173 186 1.71226 5 892 4 1422
1018 0.819101 4.96264 6.19607 187 173 186 1.71226 5 891 4 1421
1017 -1.94087 6.73992 7.63035 142 63 30 1.37175 2 1618 5 887 4 3892
1016 -3.09569 6.91802 7.1891 128 158 174 0.404782 1 3148 5 876 3 1270
1015 0.804512 4.76675 6.27722 183 167 181 1.11972 5 811 4 1339
1014 -2.1599 6.52761 7.62671 204 209 204 1.00096 2 1574 4 3869 4 4380 1 3105 7 1205 6 1020
1013 -2.45103 6.55036 7.47563 210 212 191 1.54535 2 1569 5 795 4 3890
1012 -2.70833 6.52371 7.40101 58 79 50 2.15127 2 1566 5 790 4 3910 4 4409 1 3102 3 1230
1011 -3.10345 6.42456 7.26487 175 181 187 0.731803 1 1852 5 777 4 4404
1010 -1.91583 6.23543 7.71349 120 78 20 2.18073 5 728 4 3810 2 1522
1009 -2.79299 6.20387 7.41316 86 99 56 0.844534 1 1821 5 708 4 3860
1008 -3.05574 6.15217 7.32631 133 159 172 1.57941 1 1808 5 691 4 3848 4 4370
1007 0.767387 4.44698 6.41193 190 178 192 0.901015 5 636 4 1259
1006 -1.95394 5.87284 7.75524 156 120 42 2.346 5 624 4 3715 2 1405
1005 -2.21852 6.05152 7.64485 90 80 21 1.44036 1 1780 5 620 4 3797
1004 -2.21314 5.99703 7.64823 89 83 31 1.64354 2 1466 5 619 4 3756
1003 -2.22895 5.8975 7.66084 56 72 41 1.78746 2 1400 5 618 4 3754
1002 -2.39112 5.90796 7.60339 152 166 130 1.08779 1 1717 5 617 4 3751
1001 -2.39112 5.90796 7.60339 152 166 130 1.08779 1 1718 5 616 4 3750
1000 -2.74239 5.97632 7.4642 47 62 39 0.665204 2 1451 5 606 4 3781
999 -2.74239 5.97632 7.4642 47 62 39 0.665204 2 1452 5 605 4 3782
998 -2.28718 5.75674 7.66079 61 75 42 1.63834 2 1394 5 521 4 3706
997 -2.68151 5.7478 7.52512 34 48 25 0.81506 2 1386 5 509 4 3742
996 -2.7702 5.72576 7.51043 59 77 53 1.39963 1 1701 5 506 7 1088
995 -2.89884 5.67502 7.46206 80 105 83 0.858724 1 1697 5 501 4 3698
994 -1.69284 5.42664 7.95602 101 56 23 0.280531 5 455 4 3616
993 -1.82399 5.37946 7.92092 134 106 43 0.317845 5 451 4 3613
992 -1.96623 5.3989 7.87151 148 115 47 0.455086 5 447 4 3611
991 -1.87543 5.30635 7.91682 125 102 43 0.405593 5 435 4 3612
990 -2.32988 5.33989 7.74703 108 88 27 1.28731 1 1602 5 432 4 3657
989 -1.76918 4.91591 8.10347 122 73 40 1.60591 1 1520 2 969 4 3531
988 -2.50577 4.97238 7.76186 91 86 30 1.53325 1 1507 5 366 4 3557
987 -2.94821 5.09342 7.56524 73 66 24 0.7205 2 1060 5 351 4 3594
986 -2.94821 5.09342 7.56524 73 66 24 0.7205 2 1061 5 350 4 3593
985 -3.02407 5.06441 7.54715 92 88 50 0.889235 2 1057 5 345 4 3590
984 -2.92986 4.9858 7.58863 83 73 29 0.811851 2 1067 5 344 4 3541
983 -2.92986 4.9858 7.58863 83 73 29 0.811851 2 1068 5 343 4 3542
982 -1.95506 4.76262 8.04737 225 180 139 1.76364 1 1431 2 968 4 3498
981 -2.51809 4.73994 7.78605 170 139 50 1.75219 2 965 5 293 4 3495
980 -2.68543 4.90663 7.69578 112 94 30 1.14093 2 1083 5 291 4 3546
979 -2.65848 4.65964 7.74164 252 244 202 1.05199 1 1421 5 223 4 3492
978 -2.65848 4.65964 7.74164 252 244 202 1.05199 1 1422 5 222 4 3493
977 -2.63572 4.59473 7.7686 162 142 86 1.77952 1 1425 2 880 5 221 4 3490
976 -2.63241 4.53344 7.78052 156 135 72 1.70603 2 878 5 220 4 3461
975 -2.68196 4.6476 7.7531 114 99 43 1.44833 2 882 5 218 4 3491 3 1015 6 841
974 -2.69423 4.56308 7.74771 129 114 58 0.712668 1 1419 5 216 4 3488
973 -2.93535 4.72757 7.63961 209 187 150 0.814709 1 1417 5 214 3 1010
972 -2.91024 4.55807 7.67086 103 99 88 0.920669 1 1411 2 876 5 211 4 3483 3 1011 6 839
971 -2.10008 4.29375 8.02405 250 223 187 1.83587 2 802 5 185 4 3437
970 -2.57794 4.33473 7.83183 147 127 76 1.20648 2 800 5 182 4 1467
969 -2.94849 4.48376 7.67409 227 207 168 1.52568 2 873 5 178 4 3459 3 1004 4 4204 7 865 6 835
968 -3.15811 4.44705 7.59333 214 208 196 0.599135 1 1362 2 871 5 171 3 1001
967 -3.37258 4.37193 7.53169 94 94 87 0.618471 1 1355 2 779 5 167
966 -2.08184 4.26094 8.0278 246 215 158 1.97241 2 801 5 163 4 3392
965 -2.6284 4.21372 7.83774 199 184 143 1.32459 2 798 5 161 4 3436
964 -2.84162 4.25663 7.748 93 89 86 0.77701 1 1372 2 792 5 158 4 3429
963 -2.84162 4.25663 7.748 93 89 86 0.77701 1 1371 2 791 5 157 4 3428
962 -2.82057 4.23745 7.7624 164 161 151 0.777789 1 1370 2 789 5 153 4 3430 3 977
961 -2.85382 4.29825 7.74007 123 120 115 0.78697 2 797 5 151 4 3433
960 -2.98965 4.26257 7.6745 195 179 146 1.37345 2 782 5 150 3 974 6 808
959 -2.59564 3.86245 7.91981 134 115 59 1.33643 2 666 5 87 4 3342
958 -2.92085 3.77485 7.80892 122 120 107 0.688689 2 660 5 76 4 3294
957 -2.97895 3.62702 7.81058 251 241 169 1.18123 1 1168 2 630 5 34 3 924
954 -2.36355 7.16408 7.4454 242 224 185 0.520718 2 4501 1 4917
953 -0.146444 5.53354 5.9102 51 44 38 0.798476 2 4496 1 4905
952 -2.74148 6.00195 7.47909 76 102 75 1.96615 2 4494 1 4911 5 3649 7 4330 6 3642
949 -3.16056 7.48523 7.09611 146 162 177 0.932455 2 4480 1 4891
948 -2.79013 6.62222 7.32642 77 93 49 2.00509 2 4476 1 4889 5 3624
947 -2.44154 6.43257 7.51236 213 215 194 1.13352 2 4475 1 4887 5 3625 4 5299 3 4272 7 4293
946 -3.06147 5.21517 7.50888 93 88 46 1.26289 2 4470 1 4882
945 2.41995 3.33812 5.69829 169 143 116 1.46792 2 4465 1 4873
944 2.41995 3.33812 5.69829 169 143 116 1.46792 2 4464 1 4872
943 -2.65838 8.26189 7.16577 167 138 39 2.27944 2 4453 1 4867
942 -3.16679 8.17004 6.93646 160 174 177 0.488998 2 4452 1 4866
941 -3.10116 6.84266 7.21435 194 201 194 1.99115 2 4442 1 4850 3 4217 7 4243 6 3499
940 -1.94213 6.68755 7.69517 168 88 43 1.00455 2 4440 1 4849 4 5284 7 4241
938 -3.10673 6.29865 7.32526 158 180 195 1.54111 1 4848 5 3600 3 4215 2 4437 7 4240
937 -2.75635 5.79496 7.4675 73 102 74 0.675664 1 4842 5 3598
936 -3.96778 5.70053 7.0266 53 119 171 1.95556 2 4429 1 4847 7 4238
935 -3.18323 4.63504 7.55435 104 100 91 1.10756 2 4424 1 4836 3 4262 7 4231
933 -2.31501 8.5292 7.2307 154 94 32 0.958284 2 4395 1 4807
932 -2.87559 8.14261 7.08775 49 64 40 1.446 2 4393 1 4803 5 3480 3 4035 7 4026
931 1.73074 6.62283 5.29241 222 217 214 2.2913 2 4390 1 4779
930 1.73074 6.62283 5.29241 222 217 214 2.2913 2 4389 1 4780
929 -2.52954 7.27522 7.34959 249 233 197 1.66696 2 4386 1 4786 5 3467
928 -2.49988 6.88899 7.41496 228 219 188 2.19609 2 4385 1 4783 5 3544
927 -1.8784 6.33005 7.74323 143 105 42 2.51536 2 4383 1 4781 4 5246 3 4143 6 3384
926 -2.63011 6.16252 7.51097 54 74 46 1.53402 2 4382 1 4677 4 5245 3 4141 7 4003 6 3378
925 -1.88887 5.83192 7.8513 136 108 25 1.71176 1 4776 4 5239 7 4139 2 4378
924 -2.2409 5.80583 7.70047 118 131 77 1.4106 2 4377 1 4775 4 5238 3 4136 7 4138
923 -1.98264 5.44909 7.969 163 124 67 0.215769 4 5233 2 4376
922 -2.40062 5.14848 7.78774 162 129 31 1.10614 2 4373 1 4771 4 5231 3 4129 7 4127
921 -3.19091 8.35099 6.90467 14 23 6 1.10213 2 4330 1 4719
920 0.98771 7.07719 5.17823 255 246 236 1.6666 2 4325 1 4682
919 -2.40949 8.04104 7.27097 160 88 30 1.26443 2 4324 1 4708 5 3481 3 4036 7 4022
918 -3.01797 8.04026 7.05759 138 170 167 1.48401 2 4323 1 4707 3 4033 5 3362 7 4021
917 1.28669 6.98972 5.34976 197 181 165 2.03567 1 4683 4 5184
916 -3.18537 7.83225 7.00984 225 225 216 1.25246 2 4321 1 4704 5 3360 7 3847 6 2861
915 -2.98243 7.48646 7.14398 146 177 167 2.26339 2 4318 1 4701
914 -3.23859 7.43707 7.05535 232 229 220 1.09606 2 4317 1 4699 5 3353 3 3847 7 3837
913 -3.30841 7.59597 6.9709 29 113 158 0.32014 2 4316 1 4700
912 2.0453 6.58385 5.44968 93 89 86 0.0912428 2 4313 1 4672
911 1.86643 6.56873 5.36091 96 92 91 1.53561 2 4311 1 4671
910 -2.62255 7.40731 7.27591 55 78 49 1.98667 2 4309 1 4694 3 4031 7 4019 5 3472 6 3388
909 -3.01901 7.2476 7.16958 130 167 186 1.53914 2 4308 1 4693 5 3351 3 3833 7 3839 6 2851
908 -3.01461 7.24412 7.1582 130 167 186 0.287159 2 4307 1 4692
907 1.76558 6.49373 5.37232 223 220 215 1.67877 2 4306 1 4670
906 1.45423 6.38847 5.23533 189 186 181 1.36388 2 4305 1 4665
905 1.45423 6.38847 5.23533 189 186 181 1.36388 2 4304 1 4664
904 -2.61625 7.10384 7.34028 46 69 41 1.67572 2 4301 1 4688 5 3466 7 4014
903 -2.31962 6.8713 7.53265 198 207 186 2.04017 2 4299 1 4686 4 5254 3 4147 6 3386
902 -2.31627 6.86722 7.51379 198 207 186 1.80707 2 4298 1 4685 4 5253
901 -2.60883 6.69003 7.41388 84 107 79 1.33273 2 4293 1 4684 4 5250 3 4026 7 4009
900 -2.18037 6.57994 7.6066 193 207 193 1.78912 2 4290 1 4681 4 5185 3 4025 7 4010 7 3825 6 3198
899 -2.2819 6.38559 7.59055 203 210 194 1.41418 2 4289 1 4678 4 5183
898 -3.50162 6.34084 7.20015 109 157 180 1.83263 2 4288 1 4680
897 -3.54875 5.93312 7.1637 117 160 179 0.76117 2 4282 1 4674 3 4022 7 4002 6 3377
895 -2.44932 5.75706 7.61876 114 122 91 1.44539 2 4278 4 5175 3 4020 7 3996 1 4667 6 3379
894 -1.67406 5.46769 8.0471 102 59 27 1.36831 2 4275 1 4660 4 5171
893 -2.82572 4.89722 7.65092 211 203 180 1.36262 2 4271 1 4499 5 3443 4 5168 3 4011 7 3986 6 3367
892 -3.2942 5.0099 7.45745 253 233 209 1.04737 2 4270 1 4504 5 3448 3 4009
891 -3.76643 4.97157 7.27695 229 178 139 2.16663 2 4269 1 4655 5 3447 7 3984 6 3364
890 -2.05353 4.88486 7.97805 134 65 24 0.0825378 2 4268 1 4653
889 1.77775 3.78636 6.76697 2 1 6 0.493511 2 4262 1 4443
888 1.11439 3.66893 6.84843 235 222 206 2.02301 2 4261 1 4135
887 -2.70554 8.50683 7.06157 118 85 24 0.132321 2 4211 1 4580
886 -3.58402 8.25318 6.76459 228 220 207 0.102883 2 4208 1 4577
885 1.3457 7.26281 5.31589 211 203 195 0.488087 1 4540 4 4985
884 -2.2326 8.42076 7.29146 195 204 189 2.03635 2 4205 1 4575 5 3180 7 3460
883 -3.42008 8.08356 6.85303 47 129 165 0.0385161 2 4203 1 4573
882 -2.5839 8.00777 7.20228 125 90 48 2.16948 2 4202 1 4570 5 3170 3 3489 7 3450
881 -2.70725 8.06023 7.14231 60 86 47 1.31998 2 4201 1 4571 5 3169 3 3852 7 3848
880 -3.34385 7.94101 6.88196 221 217 205 2.49219 2 4200 1 4569
879 -2.5058 7.48524 7.32321 218 214 186 1.28644 2 4197 1 4552 5 3149
878 -2.67758 7.26435 7.30674 54 72 48 1.40307 2 4194 1 4543 5 3352 3 3837 7 3843
877 1.84801 6.2184 5.47619 67 66 62 2.21277 1 4252 4 4941
876 -1.97074 6.89345 7.62302 164 187 184 1.94799 2 4192 1 4537 3 4028 7 4017 6 3387
875 -3.37731 6.8369 7.09649 206 201 195 1.8883 2 4188 1 4541 3 3821 5 3345 7 3427 6 2850
874 -2.7126 6.74701 7.34567 86 103 71 1.8983 2 4187 1 4536 5 3346 4 5120 3 3823 7 3830
873 -2.72593 6.64301 7.38236 88 105 66 0.2231 2 4186 1 4534
872 -2.54781 6.56661 7.44427 215 214 190 1.82541 1 4531 5 3342 4 5188
871 -2.99588 6.35617 7.32081 182 197 201 0.264389 2 4182 1 4526
870 -2.99588 6.35617 7.32081 182 197 201 0.264389 2 4181 1 4525
869 -3.12775 6.51157 7.24232 21 101 152 0.375533 2 4180 1 4527 5 3339 3 3811 7 3821
868 -2.93589 6.29008 7.35358 50 75 47 1.21578 2 4175 1 4523
867 -3.26484 6.10774 7.25704 26 104 152 0.378111 2 4174 1 4522 3 3801 7 3805
866 -2.18076 6.07841 7.68709 184 135 42 0.69909 2 4167 1 4520 7 3808 6 3187
865 -2.59004 5.89982 7.55571 112 142 111 1.31061 2 4166 1 4519 4 5098 7 3796 6 3185
864 -3.32951 5.89732 7.27554 76 96 76 0.759805 2 4165 1 4518 5 3320 3 3800 7 3804
863 2.32061 5.0127 5.48985 2 1 0 0.288082 1 4458 4 5040
862 -2.42768 5.43871 7.73546 170 151 90 1.1325 2 4157 1 4514 4 5085 3 3788
861 -2.72759 5.39568 7.61236 90 88 37 1.72062 2 4156 1 4513 5 3305 4 5173 3 3787 7 3790 6 2827
860 -2.83031 5.19729 7.59412 77 78 34 0.905265 2 4152 1 4507 5 3304 4 5076 3 3785 7 3355 6 2811
859 -3.29552 5.20475 7.40915 244 201 156 1.87578 2 4150 1 4506 3 3783 7 3789 6 2824
858 -4.12836 5.23223 7.11886 222 168 130 0.686564 2 4146 1 4511
857 -2.18551 5.05807 7.885 171 113 40 1.59737 2 4145 1 4502 4 5075 3 3780 7 3783 6 3170
856 -2.84138 5.04817 7.62593 95 94 45 1.11258 2 4143 1 4500 5 3449 4 5170 7 3987
855 -2.94983 4.9383 7.59193 254 237 185 0.911037 2 4142 1 4498 5 3298 4 5072 3 3772 7 3778 6 2808
854 -2.21551 4.91016 7.89845 215 171 64 1.24068 2 4140 1 4501 4 5068 3 3779 7 3782
853 -2.45802 4.80678 7.79049 102 100 47 1.42448 2 4138 1 4493 5 3444 4 5067
852 -2.53152 4.68819 7.79382 255 233 161 1.69093 2 4136 1 4492 5 3289 4 5061
851 -2.53152 4.68819 7.79382 255 233 161 1.69093 2 4135 1 4491 5 3290 4 5060
850 -2.73444 4.75541 7.70453 85 77 31 1.40355 2 4134 1 4490 5 3442 4 5065 3 4005 7 3771 6 3165
849 -2.82898 4.78188 7.66744 186 179 158 0.993447 2 4133 1 4489 5 3295 4 5064 7 3779
848 -3.56485 4.69352 7.3825 253 206 145 0.954045 2 4132 1 4488 5 3435 3 4007 7 3980 6 3360
847 2.21771 3.6601 6.04221 31 30 27 0.325402 2 4110 4 4819
846 2.1451 3.59149 6.18926 3 3 3 1.12219 2 4109 4 4816
843 -2.62746 8.6034 7.10703 183 126 36 1.15829 2 4026 1 4387 5 2867
842 -2.95247 8.5179 6.98395 34 49 30 1.31334 2 4025 1 4386 7 2790 3 2953
841 -2.9344 8.42719 6.9805 34 53 31 0.290907 2 4024 1 4384
840 -2.77282 8.2643 7.09792 245 200 75 1.06457 2 4019 1 4377 5 2838 3 3488 7 3459
839 -2.94704 8.3248 7.01244 33 48 29 0.0600121 2 4017 1 4383
838 -2.84262 8.23441 7.08125 19 31 19 1.47388 2 4016 1 4376 5 2836 3 2912 7 2792
837 -3.03216 8.20647 6.99283 145 179 181 1.94628 2 4014 1 4574 3 2908 3 3486 5 3168 7 2787 7 3456
836 1.33967 7.15459 5.33204 210 197 188 0.530855 1 4312 4 4745
835 -2.45687 8.01002 7.25532 123 55 7 0.283586 2 4010 1 4374
834 -2.57585 8.05104 7.21287 118 86 39 0.930085 2 4009 1 4373 5 2839
833 -3.10688 8.01963 7.00403 115 156 176 1.10865 2 4008 1 4372 5 2833 7 2744 3 2905
832 -3.3323 7.93194 6.90761 178 185 180 0.71426 2 4007 1 4370
831 -2.37261 7.99059 7.26783 161 92 33 0.341699 2 4006 1 4363
830 -2.54742 7.55678 7.29576 129 113 90 1.18523 2 4001 1 4350 5 2802 3 3473 7 3437
829 -3.31975 7.50289 7.00895 193 199 195 1.10844 2 4000 1 4348 5 2800 3 2871 7 2722
828 -2.56463 7.10816 7.3691 37 60 32 0.791401 2 3989 1 4328 7 2685
827 -2.56463 7.10816 7.3691 37 60 32 0.791401 2 3988 1 4327 7 2684
826 -3.34557 6.97017 7.09063 153 181 195 1.74402 2 3986 1 4325 5 2778 7 2678 6 2247
825 2.09678 6.24349 5.6384 90 89 85 1.8147 1 4253 4 4942
824 1.6134 6.26957 5.33132 217 212 208 0.909801 2 3978 1 4249
823 -3.06378 6.99943 7.18794 147 173 170 0.27206 2 3974 1 4326
822 -3.21467 6.95161 7.15001 203 207 202 1.25827 2 3972 1 4322 3 3445 7 3429 6 2250
821 -3.31684 6.89869 7.10546 92 150 177 0.582955 2 3971 1 4320 5 2777 3 3444 7 2677
820 -3.42856 6.92835 7.04995 23 104 147 0.195209 2 3970 1 4319
819 -3.43712 6.9293 7.0636 23 104 147 1.67312 2 3969 1 4318 5 2776
818 -3.06189 6.68314 7.24733 234 234 224 1.19297 2 3968 1 4315 5 2758 3 2806 4 4992 7 2646 6 1004
817 -3.44449 6.6973 7.09016 230 226 217 0.768622 2 3966 1 4313 5 3139 3 3443 6 2229
816 -3.344 6.56316 7.16045 75 132 168 1.21442 2 3965 1 4314 3 3442 5 3132 7 3403 6 2227 6 2228
815 -2.06531 6.64626 7.64832 148 66 22 1.05882 2 3960 1 4311 4 4979 3 3432 6 2244
813 -2.57962 6.55788 7.45736 229 231 210 1.17722 2 3958 1 4309 3 3429 7 3409 6 2239
812 -2.57962 6.55788 7.45736 229 231 210 1.17722 2 3957 1 4310 3 3430 7 3410 6 2240
811 -3.35964 6.35411 7.18586 238 235 230 0.830952 2 3956 1 4306 5 3122 3 3421 7 3402 6 2224
810 -3.35964 6.35411 7.18586 238 235 230 0.830952 2 3955 1 4305 5 3121 3 3422 7 3401 6 2225
809 -2.27443 6.33082 7.60967 207 210 191 0.424716 2 3951 1 4302 4 4970 3 3431 7 3390 6 2849
808 -2.96783 6.21757 7.35815 170 195 200 1.7125 2 3950 1 4301 5 2736 4 4973 3 2772 7 2598 6 2231
807 -2.96878 6.21621 7.35653 170 195 200 1.34918 2 3949 1 4300 4 4972 7 2599
806 -3.14108 6.16368 7.30244 92 141 177 0.957221 2 3947 1 4299 5 3120 3 2770 7 2597 6 2210
805 -3.14108 6.16368 7.30244 92 141 177 0.957221 2 3946 1 4298 5 3119 3 2769 7 2596 6 2209
804 -2.75722 6.0653 7.47797 65 84 62 0.9006 2 3940 1 4285 4 4966
803 -2.75722 6.0653 7.47797 65 84 62 0.9006 2 3939 1 4286 4 4965
802 -2.87393 5.99854 7.4738 74 94 69 1.35275 2 3938 1 4284 3 3803 7 3807
801 -2.68483 5.95743 7.50733 58 83 54 1.64983 2 3937 1 4287 5 3103 7 3387 6 2840
800 -2.30252 5.85008 7.68819 37 60 38 0.940218 2 3931 1 4278 4 4960 3 3406 7 3370
799 -2.65537 5.68708 7.5646 44 73 49 1.23752 2 3930 1 4277 5 3081 4 4956 3 3405 7 3369
798 -2.84041 5.67434 7.48717 96 122 93 1.44989 2 3929 1 4276 5 3080 4 4955 3 3792 7 3368 7 3795
797 -3.45035 5.62962 7.26776 128 169 197 0.971144 2 3926 1 4274 5 3072 3 3404 7 3367 6 2186
796 -3.24446 5.59051 7.35405 252 239 220 0.323087 2 3915 1 4275
795 -2.21037 5.31274 7.8411 188 147 57 0.959183 2 3904 1 4246 4 5077 7 3359
794 -2.2096 5.31274 7.83764 188 147 57 0.977165 2 3903 1 4245 4 5078 3 3398 7 3358
793 -2.0425 5.27694 7.91307 199 153 87 0.110309 2 3902 1 4244 7 3360
792 -2.6166 5.20357 7.69095 106 103 53 1.09557 2 3901 1 4243 4 4935 3 3396 7 3357
791 -2.61453 5.20395 7.68168 106 103 53 1.76839 2 3900 1 4242 4 4936 3 3395 7 3356 6 2830 5 3066
790 -3.23797 5.35078 7.41346 254 224 152 0.446928 2 3898 1 4258 5 3065
789 -3.20963 5.28863 7.43573 87 82 46 0.340059 2 3897 1 4257 5 3064 3 3390 7 3354
788 -3.20855 5.2062 7.4477 231 201 147 1.60689 2 3896 1 4241 3 3389 7 3351 7 2542
787 -3.21099 5.20555 7.44829 231 201 147 1.18829 2 3895 1 4240 3 3388 7 3350
786 -3.35084 5.11891 7.40447 72 67 30 0.857505 2 3894 1 4239 5 3058 3 3385 7 3349 6 2150
785 -3.35084 5.11891 7.40447 72 67 30 0.857505 2 3893 1 4238 5 3057 3 3384 7 3348 6 2149
784 -3.6372 5.15739 7.27936 221 197 169 1.34926 2 3892 1 4237 5 3054 7 3346 6 2800
783 -3.76045 5.09994 7.24197 249 236 221 0.837194 2 3890 1 4236 3 3378 7 3344 6 2141
782 -3.60339 5.02199 7.32231 255 243 227 1.0679 2 3877 1 4235 5 3053 3 3366 7 3326 6 2797
781 -2.65861 4.83653 7.72494 200 175 131 1.78893 2 3865 1 4228 5 3046 3 3774 7 3331 6 2809
780 -2.65896 4.83747 7.72586 200 175 131 1.62379 2 3864 1 4227 5 3045 4 4928 3 3773 7 3330 6 2810
779 -2.6141 4.72624 7.76389 137 121 61 1.46217 2 3862 1 4219 4 4922 3 3765 7 3316 6 2787
778 -2.96189 4.811 7.61457 226 202 156 1.18817 2 3860 1 3785 5 3041 4 4926 3 3373 7 3329 6 2807
777 -2.96492 4.74011 7.62524 213 189 145 0.452738 2 3859 1 4218 5 3040
776 -3.26749 4.71313 7.50157 95 94 89 0.843858 2 3858 1 4215 5 3030 3 3357 7 3311 6 2785
775 -3.41553 4.76986 7.44023 208 179 153 0.897148 2 3857 1 4226 5 3294 3 3770 7 3327 6 2796
774 -3.54509 4.80295 7.38132 251 197 143 1.27994 2 3856 1 4225 5 3037 3 3362 7 3325 6 2794
773 -3.65325 4.66751 7.36223 241 222 207 1.136 2 3855 1 3759 3 3355 7 3309 6 2783 5 3028
771 2.23051 3.58837 5.95874 174 150 123 0.0268167 2 3783 1 3546
770 2.17066 3.60209 6.04214 179 154 129 1.03867 2 3782 1 3556
768 -3.27997 8.41143 6.87371 199 209 201 1.54915 2 3616 1 4382 5 2861 3 2947 7 2785
767 -3.51078 8.38824 6.76706 227 225 221 0.205475 2 3615 1 4028
766 -3.62911 8.28889 6.76815 208 204 194 2.23142 2 3613 1 4379 3 2938 7 2778 5 2857 6 1098
765 -3.65446 8.35845 6.72845 221 219 209 0.593427 2 3612 1 4026 3 2936 7 1463
764 -2.00084 8.54582 7.35467 165 186 181 1.5742 2 3606 1 4024 5 2375 3 2962
763 -2.60009 8.2613 7.16644 126 118 19 0.245853 2 3605 1 4016
762 -2.9287 8.34421 7.02344 22 41 22 1.45487 2 3602 1 4020 3 1455 5 1286
